1
647
0 0 0
1 0 0
0 1 0
0 0 1
1 0 0 0
0 1 0 0
0 0 1 0
0 0 0 1
0.000 0.000 0.000 0.000 0 0 0
0.000 0.000 0.000 0.000 0 0 0
-8.834 -5.111 6.552 33.000 255 249 255
-8.833 -5.132 6.549 29.000 161 154 206
-30.315 -24.657 24.526 58.000 107 112 131
-28.693 -26.717 24.497 51.000 110 111 129
-28.468 -27.034 24.456 48.000 105 105 117
-33.067 -21.218 24.459 51.000 105 100 122
-28.288 -27.263 24.441 48.000 104 106 119
-28.930 -26.674 24.269 47.000 92 94 106
-29.945 -25.413 24.214 49.000 135 141 155
-28.152 -27.671 24.212 61.000 109 106 127
-27.093 -28.950 24.288 44.000 65 67 79
-27.131 -28.884 24.294 46.000 70 70 82
-31.324 -23.767 24.058 50.000 54 48 62
-33.963 -20.322 24.050 45.000 48 48 60
-35.133 -18.827 24.196 49.000 118 123 145
-28.897 -26.908 23.936 40.000 71 69 74
-25.920 -30.502 24.259 49.000 81 87 99
-8.990 -5.394 6.339 26.000 56 54 59
-29.822 -25.785 23.761 47.000 121 117 132
-33.216 -22.277 23.969 38.000 43 42 48
-26.082 -30.502 23.928 49.000 83 84 102
-34.982 -19.247 23.737 31.000 52 52 62
-29.868 -26.737 23.549 44.000 61 58 65
-28.506 -28.401 23.617 56.000 74 77 86
-30.523 -26.066 23.552 37.000 46 44 49
-31.849 -24.290 23.472 43.000 46 49 58
-25.486 -32.049 23.961 56.000 44 45 50
-27.963 -29.083 23.622 54.000 67 67 79
-26.612 -30.701 23.733 50.000 46 46 54
-27.185 -30.069 23.629 48.000 67 70 79
-34.797 -20.619 23.568 49.000 47 47 55
-30.725 -25.786 23.349 41.000 57 47 56
-31.859 -24.484 23.337 45.000 50 49 57
-28.296 -29.000 23.430 45.000 50 47 54
-30.714 -26.035 23.300 49.000 55 55 63
-28.298 -29.037 23.315 44.000 47 50 57
-33.147 -23.037 23.187 45.000 46 45 53
-34.467 -21.320 23.226 47.000 59 59 69
-29.388 -27.842 23.160 43.000 52 51 57
-27.377 -30.245 23.254 43.000 73 72 80
-9.605 -5.409 6.267 20.000 77 77 85
-26.453 -31.362 23.312 48.000 46 47 52
-29.585 -27.686 23.006 49.000 100 103 120
-35.212 -20.546 23.129 46.000 79 82 91
-26.758 -31.061 23.210 65.000 81 81 91
-30.813 -26.151 22.841 45.000 96 98 113
-25.962 -32.119 23.211 49.000 63 62 70
-28.330 -29.285 22.903 47.000 92 94 109
-35.028 -20.786 22.758 53.000 91 93 108
-27.279 -30.625 22.860 47.000 105 108 125
-26.565 -31.536 22.956 58.000 101 107 123
-32.434 -24.083 22.436 48.000 111 114 131
-28.129 -29.547 22.576 53.000 115 118 137
-19.368 -10.922 12.257 28.000 66 69 84
-16.171 -10.804 10.716 31.000 110 110 120
-27.111 -30.854 22.594 50.000 119 122 141
-28.459 -29.132 22.410 49.000 113 115 130
-29.764 -27.210 22.196 43.000 105 107 122
-29.745 -27.294 22.106 54.000 83 83 91
-33.734 -22.298 22.101 43.000 79 77 88
-26.586 -31.522 22.468 60.000 123 126 145
-35.230 -20.383 22.108 44.000 67 65 70
-26.897 -30.992 22.233 75.000 78 77 91
-33.867 -22.178 21.838 43.000 97 98 116
-28.939 -28.447 21.837 49.000 140 141 159
-31.111 -25.724 21.595 38.000 86 84 97
-27.516 -30.289 21.699 47.000 134 135 155
-31.390 -25.471 21.284 63.000 127 130 145
-32.386 -24.608 21.403 32.000 35 36 38
-30.821 -26.193 21.257 53.000 131 133 156
-29.412 -27.970 21.304 46.000 119 122 141
-30.698 -26.349 21.207 52.000 134 137 154
-32.475 -24.084 21.159 72.000 131 137 159
-33.797 -22.400 21.215 56.000 129 141 163
-32.785 -23.695 21.066 58.000 123 125 138
-35.232 -20.559 21.164 46.000 124 122 135
-28.644 -28.894 21.104 46.000 68 66 77
-35.575 -20.120 21.188 40.000 102 108 122
-33.856 -22.320 21.005 44.000 95 93 104
-34.829 -21.076 21.079 49.000 115 114 128
-17.711 -10.511 10.643 23.000 115 109 121
-36.334 -20.315 21.514 57.000 89 87 101
-16.937 -10.841 10.319 37.000 77 83 97
-34.753 -21.176 20.861 50.000 113 112 128
-26.255 -31.958 21.089 45.000 76 73 82
-27.265 -30.725 20.946 44.000 111 110 124
-35.594 -20.102 20.792 41.000 76 74 85
-31.040 -25.924 20.424 48.000 118 118 130
-36.646 -19.932 21.090 48.000 131 133 156
-30.643 -26.565 20.458 57.000 111 115 126
-36.627 -19.952 20.881 45.000 99 103 132
-16.573 -9.334 9.507 10.000 88 87 95
-33.703 -22.518 20.239 47.000 140 137 154
-32.121 -24.533 20.110 54.000 124 126 139
-28.319 -29.639 20.320 37.000 117 114 123
-31.343 -25.531 19.974 53.000 130 129 145
-34.383 -21.653 20.075 45.000 115 106 123
-34.396 -21.632 19.925 56.000 117 124 130
-29.286 -28.300 19.830 28.000 67 62 66
-25.767 -33.075 20.378 44.000 51 54 59
-32.444 -24.124 19.649 46.000 105 104 112
-32.964 -23.458 19.679 43.000 125 115 126
-30.764 -31.805 21.479 44.000 103 107 118
-33.596 -22.656 19.614 53.000 124 130 146
-36.809 -19.730 20.193 48.000 121 140 147
-5.487 -3.081 3.028 26.000 65 69 72
-27.507 -31.269 19.962 52.000 102 106 115
-32.660 -23.852 19.391 61.000 129 137 150
-17.024 -12.433 10.059 27.000 74 74 82
-17.843 -11.161 10.000 35.000 91 81 92
-32.835 -30.581 21.191 52.000 66 72 88
-31.408 -25.456 19.117 53.000 135 134 148
-32.249 -24.381 19.043 62.000 138 135 152
-31.635 -25.162 18.958 56.000 130 133 150
-31.876 -31.843 21.086 53.000 64 70 86
-31.241 -25.672 18.927 52.000 134 136 149
-32.753 -30.693 20.895 48.000 67 73 89
-35.046 -20.800 18.918 50.000 67 70 75
-30.539 -26.707 18.794 49.000 116 115 129
-17.831 -10.115 9.480 31.000 46 49 54
-30.346 -33.821 20.955 58.000 65 71 87
-35.358 -20.403 18.790 46.000 115 113 126
-36.356 -20.299 19.167 71.000 125 131 157
-35.327 -20.443 18.752 53.000 115 113 126
-30.312 -33.867 20.834 48.000 64 70 86
-31.133 -25.810 18.500 59.000 132 134 149
-28.995 -35.076 20.814 52.000 48 51 58
-31.104 -25.850 18.444 54.000 134 138 150
-34.442 -21.573 18.466 43.000 125 113 125
-28.765 -29.704 18.767 41.000 91 89 102
-30.992 -25.983 18.338 64.000 131 138 156
-28.975 -35.228 20.642 57.000 56 58 70
-17.770 -9.596 9.107 29.000 123 150 159
-31.299 -25.593 18.203 48.000 124 124 136
-17.417 -10.570 9.137 28.000 76 74 77
-27.832 -30.905 18.638 60.000 86 67 95
-30.535 -33.574 20.201 85.000 66 69 84
-32.510 -24.051 17.996 51.000 134 137 154
-30.511 -33.590 19.901 71.000 91 95 106
-30.381 -26.081 17.481 46.000 55 52 63
-17.180 -13.290 9.473 34.000 52 51 56
-35.612 -19.972 17.770 41.000 96 98 111
-17.099 -11.965 9.054 25.000 59 57 60
-33.440 -22.196 17.434 51.000 60 57 64
-27.832 -29.313 17.479 44.000 52 49 60
-31.778 -24.458 17.345 48.000 96 99 108
-32.885 -23.041 17.340 57.000 81 76 82
-18.688 -10.420 9.235 27.000 34 29 35
-30.456 -26.146 17.319 51.000 107 113 127
-18.936 -10.211 9.250 28.000 56 53 72
-5.511 -3.038 2.700 31.000 51 51 59
-33.020 -22.864 17.208 49.000 59 55 56
-5.392 -3.037 2.650 29.000 28 31 36
-25.965 -31.850 17.373 48.000 64 59 65
-18.607 -11.246 9.164 28.000 45 46 51
-28.500 -28.965 17.123 51.000 57 56 61
-35.419 -20.094 17.130 46.000 48 45 52
-16.893 -12.165 8.743 47.000 84 83 89
-31.702 -24.963 16.918 43.000 103 101 112
-35.402 -20.256 17.043 40.000 56 55 61
-36.828 -19.713 17.378 46.000 135 150 173
-33.286 -22.928 16.720 44.000 65 63 68
-33.981 -22.109 16.652 47.000 93 88 95
-28.052 -29.618 16.744 51.000 92 90 103
-19.684 -11.119 9.264 34.000 51 43 54
-31.644 -25.106 16.360 65.000 126 129 148
-29.897 -27.337 16.373 52.000 114 114 124
-34.236 -21.799 16.372 47.000 116 110 120
-35.216 -20.554 16.453 49.000 66 71 75
-36.590 -20.022 16.822 63.000 116 124 137
-29.226 -28.107 16.336 47.000 78 77 82
-34.361 -21.642 16.323 54.000 115 114 128
-27.764 -30.081 16.436 64.000 65 65 75
-33.499 -22.743 16.228 37.000 38 35 44
-29.939 -27.275 16.220 48.000 117 119 132
-16.737 -10.075 7.793 37.000 85 84 100
-5.748 -3.109 2.605 27.000 69 78 87
-31.880 -24.947 16.031 44.000 50 45 51
-25.907 -32.464 16.430 48.000 101 103 116
-33.128 -23.213 15.843 46.000 127 124 135
-28.250 -29.462 15.882 58.000 121 124 141
-30.217 -26.924 15.731 64.000 141 146 168
-35.586 -20.073 15.877 50.000 100 104 113
-35.681 -19.955 15.866 59.000 110 110 120
-5.707 -3.096 2.493 29.000 49 51 72
-25.982 -32.355 15.907 49.000 102 102 114
-27.655 -30.224 15.670 64.000 108 110 122
-33.236 -23.076 15.303 48.000 135 126 131
-33.313 -22.979 15.274 41.000 55 53 74
-33.192 -23.137 15.224 58.000 74 80 104
-35.586 -20.073 15.273 54.000 117 122 141
-36.815 -19.737 15.583 56.000 126 133 159
-34.033 -22.054 15.049 49.000 55 64 69
-32.329 -24.229 14.894 58.000 130 130 142
-25.979 -32.352 15.151 53.000 113 112 126
-32.621 -23.858 14.757 69.000 135 137 158
-32.744 -23.702 14.713 47.000 134 136 148
-35.025 -20.791 14.722 53.000 76 79 84
-32.570 -30.677 16.137 51.000 66 65 79
-28.668 -34.426 16.117 43.000 48 52 61
-33.604 -22.606 14.551 69.000 129 137 156
-32.645 -30.747 16.081 38.000 64 66 78
-5.774 -3.262 2.376 250.000 57 50 57
-32.929 -30.223 16.003 61.000 59 65 79
-32.909 -23.485 14.462 64.000 144 147 166
-27.920 -29.809 14.568 40.000 89 85 100
-25.746 -32.550 14.773 46.000 112 111 127
-33.447 -22.800 14.411 57.000 131 133 156
-33.885 -22.256 14.416 62.000 126 133 152
-34.436 -21.544 14.389 49.000 135 134 148
-5.611 -3.093 2.272 32.000 31 34 39
-34.853 -21.009 14.392 48.000 99 102 117
-30.925 -26.027 14.280 63.000 125 128 147
-32.974 -23.409 14.273 46.000 127 119 142
-34.749 -21.151 14.355 53.000 111 114 129
-27.743 -29.949 14.367 52.000 84 80 95
-32.379 -31.141 15.767 49.000 61 65 77
-36.526 -20.105 14.628 41.000 122 130 133
-27.772 -30.055 14.216 49.000 83 86 101
-31.120 -25.771 14.042 53.000 125 127 142
-20.404 -11.693 8.169 26.000 67 76 81
-31.930 -24.736 13.917 47.000 128 131 146
-33.234 -23.076 13.926 60.000 128 127 141
-17.400 -12.808 7.401 29.000 90 92 104
-33.925 -22.193 13.897 60.000 130 134 161
-25.975 -32.308 14.131 47.000 64 58 68
-30.788 -26.204 13.738 61.000 121 119 130
-32.740 -23.700 13.736 48.000 125 125 135
-32.494 -24.012 13.669 49.000 64 62 76
-27.087 -31.848 14.149 41.000 85 87 102
-27.258 -31.692 14.062 2.000 48 51 60
-32.207 -24.386 13.612 50.000 85 84 98
-29.704 -34.578 15.304 47.000 42 45 54
-30.337 -33.777 15.134 61.000 57 60 69
-30.441 -33.642 15.117 57.000 53 56 61
-29.813 -34.448 15.136 47.000 41 44 53
-32.365 -31.167 14.805 75.000 63 66 81
-16.252 -9.743 6.230 33.000 104 103 111
-32.697 -23.762 13.202 56.000 115 115 127
-30.372 -33.732 14.795 51.000 59 61 73
-25.703 -32.705 13.521 61.000 123 122 136
-32.126 -31.474 14.520 59.000 67 70 85
-35.164 -20.613 13.126 53.000 65 74 81
-35.075 -20.735 13.058 44.000 98 98 108
-32.172 -31.403 14.382 48.000 66 69 84
-32.652 -23.822 12.832 48.000 50 50 62
-32.056 -31.561 14.264 51.000 68 71 86
-15.958 -11.522 6.217 27.000 103 111 124
-32.155 -24.628 12.741 63.000 45 38 46
-34.331 -21.685 12.761 57.000 118 117 133
-30.710 -26.302 12.667 59.000 123 126 141
-16.043 -11.810 6.215 28.000 123 120 127
-29.854 -28.295 12.801 58.000 69 76 104
-29.792 -28.410 12.713 49.000 79 78 92
-35.135 -20.655 12.579 51.000 92 88 102
-27.608 -31.236 12.845 39.000 79 81 94
-18.712 -11.517 6.770 32.000 69 70 74
-35.694 -19.935 12.595 64.000 112 117 139
-32.450 -31.059 13.676 61.000 66 72 86
-35.058 -20.754 12.398 56.000 96 99 114
-30.089 -34.087 13.799 50.000 59 61 73
-30.942 -26.012 12.240 59.000 118 116 127
-35.227 -20.535 12.242 41.000 97 96 101
-32.976 -30.381 13.415 68.000 69 72 87
-33.853 -22.296 12.136 50.000 123 121 126
-17.320 -10.543 6.066 26.000 102 99 106
-32.210 -31.365 13.419 56.000 69 75 89
-28.008 -29.758 12.192 48.000 101 99 104
-29.795 -34.472 13.549 53.000 54 57 66
-33.926 -22.195 12.003 59.000 121 120 136
-36.671 -19.924 12.341 72.000 135 146 168
-25.866 -32.499 12.283 48.000 108 109 127
-34.037 -22.060 11.979 58.000 124 122 136
-28.053 -29.697 12.004 53.000 104 101 110
-29.990 -34.228 13.353 56.000 63 67 78
-30.026 -34.184 13.297 58.000 65 69 80
-33.327 -22.961 11.768 58.000 121 123 136
-32.210 -24.390 11.706 61.000 85 85 95
-33.263 -23.038 11.723 56.000 126 124 138
-18.543 -11.697 6.340 15.000 119 116 125
-18.542 -11.697 6.296 33.000 98 94 95
-34.807 -21.071 11.651 66.000 107 107 119
-32.958 -30.404 12.805 53.000 72 75 90
-30.461 -26.812 11.430 60.000 118 120 135
-31.122 -25.775 11.371 44.000 122 118 133
-33.153 -22.782 11.279 48.000 84 77 95
-27.830 -30.307 11.438 48.000 69 75 87
-33.510 -22.457 11.218 59.000 70 79 88
-32.238 -24.102 11.139 41.000 84 78 92
-18.382 -11.675 6.015 26.000 102 96 110
-17.614 -10.649 5.668 20.000 56 55 63
-32.086 -24.453 11.036 45.000 63 63 71
-35.572 -19.868 11.141 45.000 54 55 60
-25.775 -32.305 11.239 60.000 49 49 51
-27.061 -31.078 11.103 48.000 54 49 55
-29.100 -28.582 10.953 47.000 87 87 97
-32.422 -24.024 10.815 47.000 112 110 121
-26.588 -31.774 11.058 45.000 51 50 55
-27.806 -30.244 10.893 52.000 57 57 65
-35.110 -20.584 10.744 50.000 100 99 113
-27.702 -30.057 10.779 48.000 69 71 84
-18.794 -11.937 5.871 28.000 103 106 115
-26.761 -31.585 10.859 48.000 93 92 100
-32.210 -24.298 10.568 50.000 115 114 122
-35.249 -20.404 10.672 46.000 100 94 106
-18.767 -12.311 5.866 27.000 117 114 125
-34.953 -20.781 10.640 48.000 95 95 105
-31.171 -25.623 10.483 48.000 110 108 121
-31.416 -25.312 10.464 45.000 102 106 118
-33.276 -22.926 10.469 47.000 109 106 117
-35.429 -19.279 10.017 49.000 55 50 54
-29.644 -26.780 9.901 60.000 81 82 87
-30.175 -26.105 9.883 48.000 82 82 92
-25.512 -32.761 10.269 41.000 92 89 98
-28.719 -27.968 9.902 44.000 67 66 71
-27.247 -29.857 9.903 60.000 65 68 75
-34.599 -20.457 9.841 50.000 85 85 95
-34.305 -20.826 9.760 59.000 100 99 107
-26.858 -30.354 9.830 62.000 92 89 96
-27.356 -29.720 9.769 57.000 107 109 124
-32.467 -23.658 9.614 57.000 39 41 38
-28.628 -28.573 9.659 50.000 32 30 33
-29.445 -27.738 9.476 49.000 50 45 49
-25.818 -32.198 9.638 48.000 29 29 29
-35.356 -20.120 9.502 40.000 50 45 49
-30.170 -26.855 9.352 60.000 63 62 70
-33.588 -22.601 9.379 48.000 56 51 55
-32.364 -24.603 9.368 29.000 21 21 23
-32.802 -23.474 9.287 53.000 70 66 63
-34.305 -21.556 9.284 46.000 76 72 73
-33.154 -23.025 9.222 45.000 76 70 70
-33.034 -23.183 9.178 60.000 78 69 70
-29.345 -27.884 9.185 50.000 76 74 77
-26.958 -30.961 9.241 50.000 72 66 68
-33.435 -22.677 9.027 40.000 82 76 76
-33.172 -23.068 8.978 48.000 62 56 56
-28.965 -28.416 8.878 40.000 53 49 46
-16.483 -8.944 4.082 20.000 55 61 73
-31.064 -25.698 8.745 52.000 96 90 90
-31.351 -25.325 8.738 58.000 92 86 86
-28.912 -28.469 8.778 44.000 85 74 70
-36.700 -19.884 8.992 76.000 103 116 132
-29.010 -28.530 8.753 44.000 48 39 34
-18.339 -11.335 4.632 27.000 81 71 72
-27.421 -30.385 8.731 50.000 88 79 82
-30.805 -26.029 8.576 49.000 100 92 90
-26.010 -32.154 8.780 48.000 81 76 72
-28.216 -29.326 8.640 48.000 85 76 77
-35.108 -20.555 8.613 41.000 71 66 62
-30.115 -26.941 8.505 53.000 52 48 47
-28.214 -29.325 8.536 56.000 96 87 90
-26.087 -32.049 8.622 46.000 85 79 79
-30.929 -25.940 8.427 40.000 70 64 66
-33.581 -22.597 8.412 50.000 102 96 98
-35.541 -19.969 8.361 39.000 80 72 69
-17.411 -9.461 4.060 32.000 88 107 111
-30.017 -27.053 8.252 48.000 95 94 99
-29.926 -27.137 8.218 49.000 96 93 100
-26.133 -32.025 8.342 50.000 52 48 47
-31.837 -24.700 8.103 50.000 105 95 106
-33.452 -22.630 8.132 48.000 108 102 104
-27.925 -29.711 8.196 61.000 101 97 94
-31.425 -25.289 8.015 43.000 47 39 37
-25.928 -32.257 8.182 44.000 86 77 72
-29.820 -27.310 7.976 53.000 75 69 71
-31.839 -24.734 7.846 44.000 105 96 97
-34.462 -21.331 7.854 43.000 69 59 58
-35.207 -20.383 7.639 58.000 85 81 82
-33.653 -22.407 7.555 48.000 74 70 69
-31.864 -24.753 7.468 43.000 103 93 92
-31.458 -25.253 7.459 39.000 95 86 87
-32.895 -23.420 7.451 44.000 110 100 99
-32.768 -30.644 8.256 45.000 60 66 80
-6.477 -3.745 1.377 3.000 47 43 44
-35.159 -20.442 7.404 43.000 72 71 69
-6.623 -3.568 1.372 27.000 53 60 76
-32.394 -31.125 8.162 61.000 45 48 57
-33.026 -23.179 7.265 43.000 82 71 69
-33.986 -21.942 7.296 52.000 98 89 90
-20.282 -11.994 4.137 28.000 57 48 49
-31.314 -25.456 7.037 48.000 50 45 51
-16.802 -9.659 3.338 21.000 36 36 38
-32.717 -23.568 6.883 59.000 117 111 111
-32.215 -24.213 6.843 47.000 93 84 85
-6.590 -3.783 1.286 25.000 56 51 55
-30.094 -26.924 6.780 54.000 100 97 104
-6.886 -4.216 1.339 31.000 74 65 66
-27.624 -30.088 6.744 50.000 93 91 94
-30.357 -26.892 6.704 50.000 100 96 95
-20.330 -11.114 3.805 22.000 118 125 143
-32.534 -23.832 6.598 51.000 53 49 48
-36.650 -19.947 6.835 74.000 116 123 139
-32.291 -24.238 6.556 41.000 66 67 69
-32.399 -24.072 6.514 40.000 96 97 102
-34.854 -20.959 6.519 40.000 68 70 69
-6.883 -3.812 1.258 26.000 38 46 49
-20.480 -11.640 3.757 22.000 42 38 39
-34.022 -21.907 6.323 49.000 105 96 91
-34.049 -21.865 6.334 40.000 91 83 80
-36.450 -28.569 7.206 31.000 46 49 58
-33.925 -22.022 6.240 48.000 103 89 88
-31.706 -32.000 6.920 53.000 46 53 63
-32.736 -30.691 6.817 54.000 61 69 82
-32.543 -23.840 6.016 36.000 101 100 105
-27.918 -29.743 6.023 37.000 90 94 97
-27.875 -29.770 6.004 46.000 87 82 88
-27.974 -29.656 6.005 52.000 69 67 72
-29.969 -28.202 6.058 3.000 64 67 82
-30.162 -26.852 5.932 49.000 113 112 118
-33.176 -23.013 5.940 48.000 98 93 97
-33.283 -22.846 5.940 50.000 107 100 107
-33.741 -22.258 5.934 48.000 116 107 108
-32.411 -23.958 5.885 46.000 100 96 97
-33.864 -22.220 5.917 57.000 120 110 109
-30.538 -26.654 5.878 48.000 93 87 87
-32.808 -23.452 5.852 51.000 105 102 109
-33.890 -22.060 5.865 47.000 99 91 89
-33.902 -22.037 5.843 51.000 111 105 105
-33.856 -22.096 5.803 45.000 90 88 91
-17.260 -9.230 2.816 32.000 52 61 68
-32.376 -31.149 6.404 48.000 55 61 73
-36.553 -20.069 5.944 70.000 47 48 69
-33.251 -23.005 5.726 54.000 117 113 112
-34.737 -20.975 5.733 40.000 66 64 69
-20.475 -12.330 3.370 25.000 59 59 61
-35.385 -20.140 5.756 44.000 74 70 71
-29.774 -27.338 5.461 48.000 91 80 76
-32.373 -31.147 6.011 51.000 47 51 62
-35.233 -20.343 5.185 48.000 72 67 71
-20.038 -24.223 3.892 46.000 34 33 38
-28.312 -29.000 4.881 50.000 76 71 75
-28.777 -28.410 4.886 41.000 67 56 52
-29.542 -27.461 4.864 41.000 33 29 26
-30.948 -25.637 4.853 48.000 58 46 50
-29.664 -27.439 4.718 39.000 78 74 75
-21.911 -25.674 3.892 48.000 33 32 37
-27.804 -29.805 4.687 53.000 69 67 70
-34.243 -21.521 4.536 36.000 74 69 66
-34.471 -21.339 4.543 34.000 81 69 69
-19.235 -11.535 2.491 23.000 53 49 50
-29.932 -27.046 4.441 48.000 84 79 83
-30.818 -26.044 4.433 53.000 92 83 86
-25.140 -27.384 4.067 48.000 54 55 60
-29.629 -27.577 4.296 56.000 52 46 46
-30.555 -26.375 4.282 49.000 46 52 50
-24.728 -27.917 3.805 51.000 22 22 24
-18.547 -10.740 2.129 32.000 38 39 44
-18.451 -11.204 2.133 34.000 30 28 39
-24.655 -28.009 3.611 46.000 24 23 28
-17.051 -10.484 1.924 24.000 33 31 32
-33.840 -21.412 3.660 31.000 65 48 54
-32.441 -23.221 3.525 35.000 75 65 66
-18.547 -10.528 1.885 37.000 31 25 29
-35.354 -19.470 3.560 35.000 52 42 50
-25.102 -27.445 3.246 48.000 33 32 38
-30.532 -26.029 3.491 36.000 31 22 25
-29.967 -26.813 3.488 33.000 26 17 20
-25.199 -27.315 3.192 40.000 48 49 53
-33.456 -22.309 3.459 32.000 27 21 23
-24.802 -27.830 3.123 46.000 43 42 48
-33.500 -22.398 3.301 36.000 45 39 39
-30.470 -26.367 3.283 35.000 33 27 31
-28.285 -29.296 3.240 34.000 27 22 26
-28.532 -28.977 3.247 39.000 29 24 28
-29.377 -27.784 3.187 39.000 34 30 29
-28.906 -28.469 3.168 39.000 28 23 27
-25.075 -27.484 2.795 60.000 55 54 62
-20.730 -25.344 2.428 37.000 71 71 81
-24.845 -27.774 2.773 45.000 42 41 47
-24.871 -27.736 2.768 39.000 43 42 48
-24.988 -27.592 2.695 48.000 44 43 49
-34.021 -21.733 2.874 28.000 54 43 47
-31.938 -24.409 2.816 34.000 53 43 44
-18.731 -23.781 2.070 43.000 82 82 92
-21.091 -25.624 2.263 37.000 78 77 85
-24.618 -28.071 2.492 37.000 43 42 48
-25.143 -27.390 2.433 48.000 43 42 50
-28.167 -29.247 2.614 43.000 51 42 45
-25.125 -27.405 2.317 69.000 45 43 54
-33.652 -22.172 2.493 33.000 61 50 54
-23.339 -27.384 2.196 40.000 70 70 80
-28.196 -29.205 2.477 40.000 55 46 51
-18.798 -23.838 1.811 44.000 72 72 84
-19.965 -24.749 1.880 35.000 79 76 85
-31.322 -25.277 2.248 34.000 49 43 47
-32.740 -23.406 2.142 34.000 75 66 71
-35.189 -20.290 2.151 36.000 56 51 55
-20.035 -24.804 1.664 43.000 84 82 93
-18.927 -23.941 1.533 43.000 81 81 93
-25.200 -27.317 1.862 56.000 55 54 62
-23.257 -27.322 1.787 37.000 86 88 100
-18.422 -23.540 1.469 43.000 81 81 93
-34.687 -20.805 1.965 35.000 58 47 51
-18.931 -23.946 1.458 41.000 72 72 82
-19.052 -24.037 1.457 43.000 73 71 82
-34.180 -21.454 1.876 29.000 49 39 47
-34.982 -20.401 1.860 33.000 53 44 47
-24.702 -27.960 1.572 53.000 45 44 50
-20.744 -25.363 1.359 43.000 90 94 103
-20.882 -25.467 1.368 39.000 76 79 88
-21.323 -25.812 1.385 39.000 67 65 76
-35.460 -19.929 1.685 27.000 44 39 43
-24.883 -27.717 1.528 43.000 50 49 55
-25.112 -27.425 1.509 45.000 38 39 43
-20.477 -11.033 0.939 26.000 59 62 67
-25.116 -27.429 1.418 56.000 55 56 60
-25.215 -27.301 1.405 45.000 51 52 56
-19.187 -24.147 1.136 39.000 76 76 84
-18.185 -10.089 0.737 22.000 45 40 44
-25.158 -27.373 1.280 61.000 54 51 58
-35.163 -20.133 1.404 31.000 41 32 37
-19.110 -24.081 0.991 38.000 87 85 96
-35.047 -20.268 1.280 33.000 46 42 43
-28.510 -29.135 1.244 32.000 34 25 28
-32.551 -30.940 1.249 80.000 20 20 22
-32.129 -24.092 1.108 35.000 60 55 59
-34.987 -20.347 1.073 31.000 43 37 41
-22.169 -26.470 0.887 32.000 78 76 87
-32.208 -23.935 1.022 38.000 53 44 47
-28.123 -29.167 1.014 37.000 57 48 53
-35.011 -20.304 0.964 33.000 40 34 38
-20.820 -25.424 0.750 38.000 77 77 87
-19.778 -24.612 0.673 43.000 72 73 78
-34.946 -20.381 0.838 35.000 56 54 59
-18.729 -10.033 0.418 16.000 60 67 75
-19.244 -24.190 0.478 28.000 81 81 93
-24.661 -28.018 0.574 46.000 38 37 43
-35.521 -19.735 0.601 38.000 49 44 48
-34.383 -21.201 0.582 35.000 51 42 45
-24.632 -28.055 0.476 50.000 42 41 47
-25.017 -27.558 0.455 46.000 50 49 55
-20.180 -24.924 0.346 39.000 66 66 76
-23.435 -27.464 0.375 37.000 70 70 82
-21.617 -26.038 0.284 46.000 79 79 89
-36.844 -19.707 0.246 73.000 115 112 131
-32.037 -31.595 0.082 72.000 24 25 29
-23.182 -27.269 0.026 40.000 83 83 93
-29.988 -26.703 -0.088 38.000 73 62 66
-18.767 -23.830 -0.090 41.000 74 74 86
-24.546 -28.167 -0.170 44.000 44 43 49
-24.606 -28.096 -0.353 46.000 40 39 45
-21.953 -26.311 -0.359 41.000 83 83 95
-28.195 -28.886 -0.518 34.000 39 34 38
-21.563 -26.007 -0.527 47.000 77 80 89
-25.032 -27.543 -0.616 46.000 47 46 51
-31.915 -31.748 -0.777 62.000 21 22 26
-22.361 -26.635 -0.629 44.000 78 81 90
-20.631 -25.290 -0.616 44.000 80 80 88
-35.151 -19.729 -0.785 57.000 68 68 78
-28.118 -28.737 -0.896 41.000 53 52 60
-19.086 -24.083 -0.712 46.000 82 81 97
-28.059 -28.817 -0.975 47.000 57 58 63
-32.637 -22.944 -1.002 49.000 66 68 81
-35.350 -19.471 -1.012 44.000 68 71 78
-31.793 -24.025 -1.028 44.000 64 63 69
-34.548 -20.494 -1.025 43.000 64 64 74
-31.840 -23.968 -1.033 38.000 59 58 64
-19.761 -18.215 -0.720 53.000 77 96 110
-30.653 -25.495 -1.064 48.000 72 72 84
-31.252 -24.720 -1.072 46.000 68 70 82
-34.550 -20.495 -1.100 48.000 65 65 75
-31.118 -24.895 -1.120 40.000 63 63 73
-32.618 -22.961 -1.153 62.000 68 68 80
-32.996 -22.478 -1.173 45.000 76 80 92
-35.365 -19.452 -1.177 45.000 62 62 72
-31.115 -24.893 -1.193 46.000 61 61 71
-34.307 -20.809 -1.246 48.000 59 62 71
-20.034 -21.773 -1.031 72.000 65 62 71
-15.109 -14.363 -0.739 59.000 16 59 49
-30.848 -25.244 -1.405 43.000 66 65 73
-16.458 -14.655 -0.793 76.000 35 34 42
-20.310 -21.431 -1.261 77.000 39 47 60
-29.179 -21.437 -1.556 27.000 71 71 81
-15.127 -18.313 -1.032 72.000 69 71 86
-19.340 -22.723 -1.448 12.000 63 67 79
-14.803 -14.799 -1.009 49.000 76 98 122
-19.698 -21.944 -1.473 13.000 82 106 108
-22.729 -18.670 -1.581 16.000 73 72 80
-8.324 -9.517 -0.692 10.000 63 98 104
-9.389 -10.104 -0.749 13.000 39 33 43
0.000 0.000 0.000 0.000 0 0 0
-14.383 -13.423 -1.133 98.000 46 51 55
-16.694 -16.305 -1.374 47.000 32 50 52
-19.114 -17.971 -1.558 10.000 44 64 71
-20.735 -16.820 -1.608 9.000 63 62 68
-13.099 -13.096 -1.143 37.000 32 39 47
-13.352 -12.756 -1.142 40.000 24 33 38
-13.400 -12.692 -1.144 47.000 43 37 49
-17.210 -17.397 -1.543 2.000 51 64 72
-18.772 -13.146 -1.476 21.000 50 46 47
-19.239 -12.243 -1.484 37.000 72 63 66
-14.754 -17.466 -1.500 16.000 54 54 64
-18.755 -12.229 -1.467 39.000 51 46 53
-19.456 -11.510 -1.486 62.000 47 44 39
-12.574 -11.822 -1.142 86.000 59 49 76
-12.607 -11.780 -1.141 66.000 66 72 70
-19.026 -11.021 -1.458 43.000 49 45 46
-12.648 -11.731 -1.157 47.000 45 47 59
-18.721 -12.027 -1.494 23.000 45 39 39
-14.310 -16.690 -1.510 16.000 59 66 76
-17.929 -11.164 -1.476 22.000 53 51 52
-17.342 -10.159 -1.424 37.000 40 40 42
-17.470 -12.476 -1.528 43.000 59 50 51
-18.202 -10.130 -1.487 37.000 33 33 35
-16.662 -11.532 -1.459 38.000 57 53 52
-6.625 -7.737 -0.755 29.000 29 28 42
-18.071 -13.124 -1.662 31.000 76 75 81
-16.171 -13.722 -1.617 9.000 50 49 57
-17.031 -13.269 -1.643 10.000 55 54 60
-17.611 -9.716 -1.545 22.000 37 35 36
-14.161 -14.262 -1.569 8.000 39 42 49
-5.643 -7.085 -0.709 31.000 97 107 142
-14.174 -14.136 -1.573 14.000 42 47 53
-9.398 -10.077 -1.099 33.000 115 142 172
-15.953 -10.854 -1.539 26.000 36 31 28
-16.496 -10.188 -1.568 38.000 25 25 25
-9.771 -9.602 -1.120 11.000 102 118 134
-9.800 -9.548 -1.126 33.000 108 122 157
-16.719 -9.480 -1.588 27.000 28 27 23
-12.654 -13.653 -1.558 19.000 60 77 87
-11.059 -11.844 -1.353 24.000 63 70 80
-16.278 -9.942 -1.612 23.000 38 36 39
0.000 0.000 0.000 0.000 0 0 0
-16.465 -9.741 -1.624 31.000 42 40 41
0.000 0.000 0.000 0.000 0 0 0
-15.856 -10.590 -1.666 35.000 33 29 28
-12.297 -12.993 -1.569 12.000 56 69 85
-16.911 -9.088 -1.695 38.000 34 32 33
-16.434 -9.438 -1.705 40.000 40 34 34
0.000 0.000 0.000 0.000 0 0 0
-3.408 -2.800 -0.411 144.000 196 215 255
-3.406 -2.805 -0.419 145.000 194 213 255
-14.605 -10.003 -1.674 31.000 73 73 85
-3.414 -2.788 -0.432 139.000 194 216 255
-7.846 -8.149 -1.118 24.000 41 46 52
0.000 0.000 0.000 0.000 0 0 0
-3.407 -2.788 -0.457 129.000 115 119 164
-3.383 -2.832 -0.461 48.000 49 53 65
-11.178 -9.858 -1.618 23.000 70 70 78
-11.560 -9.019 -1.643 16.000 60 59 67
-9.299 -10.033 -1.578 11.000 45 45 53
-6.909 -7.364 -1.160 29.000 27 35 37
-10.287 -8.729 -1.631 11.000 60 63 70
-8.409 -9.532 -1.571 27.000 54 54 62
-8.373 -9.480 -1.572 9.000 58 62 87
